   -0.000164420   -0.000073868    0.000311104
    0.000140331   -0.000525577   -0.000164831
    0.000416786   -0.000146273   -0.000445675
   -0.000399051    0.000398914   -0.000176122
   -0.000166111    0.000184167   -0.000083284
    0.000233351   -0.000176442   -0.000140925
   -0.000225443   -0.000068474   -0.000091878
    0.000134343    0.000169402    0.000275450
   -0.000266674   -0.000263748   -0.000199480
   -0.000072908   -0.000041414   -0.000205788
   -0.000231431   -0.000967595    0.000010742
   -0.000117658   -0.000644012   -0.000479638
   -0.000079490   -0.000057641    0.000352746
   -0.000021347    0.000208256    0.000015770
    0.000045756    0.000022307    0.000050373
   -0.000419209    0.000251315   -0.000138319
    0.000259634   -0.000089638    0.000431139
   -0.000084610    0.000122092   -0.000074645
   -0.000187869   -0.000157472   -0.000012525
   -0.000526948    0.000388126    0.000078576
   -0.000050418    0.000145770    0.000061069
   -0.000889568    0.000354895   -0.000233214
   -0.000506287   -0.000211227    0.000216895
   -0.000191206   -0.000153038   -0.000161540
   -0.000658365   -0.000079719    0.000015222
   -0.000161312    0.000589526    0.000771178
    0.000211730    0.000207479   -0.000428625
   -0.000183390    0.000123281    0.000534490
    0.000277461   -0.000217855   -0.000140788
    0.000013759   -0.000032089   -0.000679301
   -0.000545004   -0.001095173   -0.001109663
   -0.000831927   -0.000016319    0.000402433
   -0.000378207   -0.000193537    0.000553597
    0.001175806    0.000281393    0.000463731
    0.000062303    0.000114321    0.000141291
    0.000023495    0.000404308    0.000753443
   -0.000504459   -0.000765327   -0.000577047
   -0.000771224    0.001356681    0.001028939
    0.000217855   -0.000300865   -0.000252732
    0.000654343   -0.000814420   -0.000822100
   -0.000409473   -0.000145176    0.000274353
    0.000386298    0.000566396   -0.000266720
   -0.000005531    0.000438133   -0.000080404
   -0.000489374    0.000329845    0.000354163
    0.000032454    0.000096723    0.000020707
    0.001064364   -0.000495225   -0.000726702
    0.000482701    0.000187047    0.000123829
   -0.000357866    0.000426248   -0.000516206
   -0.000381818   -0.001796369    0.001352293
    0.000040271    0.000143119   -0.000339536
   -0.000180601    0.000108059   -0.000143530
   -0.000187915    0.000071354   -0.000669290
   -0.000055127    0.000297985   -0.000479867
    0.000325869    0.000031266    0.000717743
   -0.001910690    0.000900264    0.000091603
   -0.000184990    0.000316178    0.000430728
   -0.000027015    0.000251452    0.000196463
   -0.000933541    0.001706182    0.000423826
    0.000052521    0.000224712   -0.000062669
   -0.000483295    0.001206615   -0.000448829
    0.000013530   -0.000571607    0.000338256
    0.000144993    0.000179504   -0.000437173
    0.000051470    0.000277141    0.000029620
    0.000916080    0.000051241   -0.001213471
   -0.000255246    0.000191252    0.000027015
   -0.000664948   -0.000159940    0.000035837
   -0.000435299   -0.000805004   -0.000791428
    0.000254881   -0.000098963   -0.000076473
    0.000026969   -0.000012845   -0.000084335
    0.000946752    0.000639715   -0.000248161
    0.000253144    0.000164923   -0.000050830
    0.000718154   -0.001372680    0.000356860
   -0.000431505    0.000359283   -0.001048137
   -0.000394845   -0.000004342    0.000443070
   -0.000133291    0.000105774   -0.000049870
   -0.001286790    0.001783890   -0.000500436
    0.000128949    0.000094117   -0.000146410
   -0.000168625   -0.000587697    0.000792525
    0.000445127   -0.000047859    0.000464508
   -0.000546192   -0.001203598   -0.000288295
    0.000153175    0.000075879   -0.000201537
   -0.000966544    0.001208946    0.000103671
   -0.000209582    0.000503910    0.000159163
   -0.000873889    0.000045802   -0.000243453
    0.000684146    0.001081368   -0.000137177
   -0.000182201   -0.001288939   -0.000643281
   -0.000126663    0.000073822   -0.000037482
   -0.000607764   -0.000823379   -0.001200626
   -0.000060155   -0.000135988   -0.000270422
   -0.000000137   -0.001153591    0.000434293
   -0.000957265    0.000078119   -0.000821003
    0.000408559    0.000151895   -0.000267085
   -0.000059378   -0.000117293    0.000154958
   -0.000351055   -0.000231385   -0.001327747
   -0.000036157   -0.000145816    0.000082598
   -0.000980669    0.000284729   -0.000456372
   -0.000164054   -0.000257623   -0.000411758
   -0.000233625    0.000889796   -0.000533622
   -0.000180784   -0.000026009   -0.000096449
   -0.000435345   -0.000490471    0.000333137
   -0.000162911    0.000064863   -0.000088861
    0.000029849   -0.000766150   -0.000508573
   -0.000453537    0.000222792   -0.000104082
   -0.000437173    0.000658685    0.000081547
    0.000079764   -0.000418798    0.000107648
   -0.000993285    0.000037071   -0.000389086
    0.000129634   -0.000244139   -0.000323492
    0.000887740   -0.000891442   -0.000923576
   -0.000944192    0.000878095   -0.001113960
   -0.001168126    0.001239572   -0.000830830
   -0.000111625    0.000050418    0.000184441
    0.000459983   -0.000743661   -0.000896424
    0.000070897   -0.000196097    0.000718291
   -0.001344340    0.000155689    0.000154684
    0.000053984    0.000303791   -0.000378710
    0.002248809   -0.001137866   -0.000169448
    0.000110939    0.000047219   -0.000449972
   -0.000277599   -0.000002971   -0.000712806
    0.000254926   -0.000051150   -0.000130503
   -0.000776206   -0.000462405    0.000704167
   -0.000456829   -0.000485900   -0.000510081
   -0.000710841   -0.000078073   -0.000773784
   -0.000006857    0.000158158   -0.000061297
    0.001018197   -0.000348678   -0.000789782
   -0.000118115   -0.000024912   -0.000058966
   -0.000801164   -0.000247567    0.000357409
    0.000069114    0.000766150    0.001098327
   -0.000118572   -0.000212919   -0.000514012
   -0.000165837   -0.000003474   -0.000107008
   -0.000173333   -0.000392240    0.000141839
    0.000060429    0.000325366   -0.000316544
    0.000463868    0.000325960    0.000025369
   -0.000006674   -0.000462588    0.000467205
    0.000505190   -0.001055908   -0.000291083
   -0.000002697   -0.000048681   -0.000075239
    0.000000594    0.000054121   -0.000654388
    0.000054624   -0.000026832   -0.000111579
   -0.000327651    0.001332135   -0.000393154
   -0.000335559   -0.000135120    0.000837550
   -0.000441470   -0.001225401   -0.001294287
    0.000031951    0.000106871   -0.000141291
    0.000198931   -0.000156923   -0.000414729
    0.000046762    0.000176990   -0.000358734
   -0.000735936   -0.001296527   -0.000654206
    0.000127623    0.000614438    0.001302058
    0.000630756    0.000879146   -0.000103077
   -0.000175116    0.000098780    0.000130229
    0.000069571    0.000477718    0.000563334
   -0.000063217    0.000126937   -0.000270376
   -0.000358597    0.001056091   -0.000621249
   -0.001177406   -0.000098963   -0.000147461
   -0.000825939   -0.000512184   -0.000878735
    0.000114184   -0.000007725    0.000012799
    0.000475296    0.000224940    0.000901681
    0.000086987   -0.000046624   -0.000174659
    0.000739958    0.000640127    0.000172511
   -0.000532113   -0.001593141   -0.000973583
    0.000549392    0.000030534   -0.000219821
   -0.000258903    0.000178224    0.000137771
   -0.000658228   -0.001714456   -0.000519315
   -0.000146913   -0.000100014    0.000006354
    0.000031586    0.001117799    0.000719480
   -0.000051607   -0.000737307   -0.000829825
    0.001054125    0.000270376   -0.000016639
    0.000234357    0.000021484    0.000038077
   -0.000842166   -0.000322029   -0.001205243
    0.000038854    0.000291266    0.000204691
    0.000722771    0.000350232    0.000580566
   -0.000306670   -0.000209856   -0.000648492
   -0.000840612   -0.000690225   -0.000028478
    0.000217170    0.000318784   -0.000057824
    0.000130823   -0.000201354   -0.000367648
    0.000009645   -0.000158889   -0.000091832
   -0.000886094    0.000632219   -0.000093980
   -0.000046213   -0.000732050    0.000974635
   -0.000591308    0.000332177    0.000286512
   -0.000155552    0.000208073   -0.000066508
   -0.000344793   -0.000947940    0.000490471
    0.000241030   -0.000030306   -0.000186498
    0.001058147    0.000173288    0.000444167
    0.001335746    0.000617180   -0.000141473
   -0.000434156    0.000790331    0.001598535
    0.000008456    0.000352838    0.000036157
    0.001245331   -0.000336611    0.000170362
   -0.000217764    0.000222472    0.000132423
    0.000941586   -0.000125200   -0.000027975
    0.000182018   -0.001200672   -0.000111807
   -0.000356266    0.000036888   -0.000472096
   -0.000090826   -0.000185629    0.000012342
   -0.000715000    0.001110897    0.000581389
    0.000202131   -0.000114550    0.000017690
   -0.000397634   -0.000650823   -0.001412859
   -0.000492574    0.001153042   -0.000539564
   -0.002246478   -0.000711161   -0.000752071
    0.000129634   -0.000075925   -0.000181653
   -0.001816344   -0.000142296    0.000777898
    0.000084655   -0.000377247    0.000135485
    0.001026287    0.000573024   -0.000746678
   -0.000568087    0.001117342    0.000218861
    0.000616175   -0.000020295   -0.001408471
    0.000008639    0.000181196    0.000239888
    0.001353207   -0.000696351   -0.000757465
   -0.000089044   -0.000136628   -0.000078439
    0.001253193   -0.000931713   -0.001236692
    0.000559997    0.001160859    0.000164877
    0.000511452   -0.000654708    0.000874621
   -0.000016730   -0.000080633    0.000204691
    0.001144951    0.000683049    0.000517166
    0.000001463    0.000103214    0.000061480
    0.000445264   -0.000255840   -0.000600222
   -0.000432876    0.000372905    0.000067651
    0.000235408    0.001358144   -0.000248298
    0.000155278   -0.000037391   -0.000354118
    0.000247978    0.000695848   -0.000373636
    0.000297117    0.000021164    0.000088267
    0.000328108   -0.000946706    0.000229831
    0.000980851    0.000810306   -0.000644241
    0.000057778    0.000254195    0.000097271
   -0.000040956    0.000162272   -0.000265394
   -0.000827082   -0.000774241    0.000155872
